3055.56 3345.29 4895.42
3055.54 3347.28 4895.79
3055.52 3349.28 4896.15
3055.49 3351.28 4896.52
3055.47 3353.29 4896.88
3055.45 3355.29 4897.24
3055.43 3357.3 4897.6
3055.4 3359.3 4897.96
3055.38 3361.31 4898.31
3055.36 3363.32 4898.66
3055.34 3365.34 4899.01
3055.31 3367.35 4899.35
3055.29 3369.37 4899.69
3055.27 3371.39 4900.03
3055.25 3373.41 4900.34
3055.23 3375.43 4900.69
3055.21 3377.45 4901.02
3055.19 3379.47 4901.34
3055.17 3381.5 4901.66
3055.15 3383.52 4901.98
3055.13 3385.55 4902.3
3055.11 3387.58 4902.61
3055.09 3389.61 4902.92
3055.07 3391.65 4903.22
3055.05 3393.68 4903.53
3055.03 3395.72 4903.83
3055.01 3397.75 4904.13
3054.99 3399.79 4904.42
3054.98 3401.83 4904.71
3054.96 3403.87 4904.99
3055.72 3407.64 4892.92
3055.7 3409.66 4893.2
3055.69 3411.69 4893.47
3055.67 3413.71 4893.75
3055.65 3415.74 4894.02
3068.81 3445.01 4686.44
3068.79 3446.71 4686.66
3068.78 3448.41 4686.87
3068.76 3450.11 4687.09
3068.75 3451.81 4687.3
3068.74 3453.51 4687.51
3068.72 3455.22 4687.72
3068.71 3456.92 4687.92
3068.7 3458.62 4688.16
3068.68 3460.33 4688.36
3068.67 3462.04 4688.56
3068.66 3463.74 4688.75
3068.65 3465.45 4688.94
3068.64 3467.16 4689.13
3068.62 3468.87 4689.32
3068.61 3470.58 4689.5
3068.6 3472.3 4689.69
3068.59 3474.01 4689.88
3068.58 3475.72 4690.05
3068.57 3477.44 4690.22
3068.56 3479.15 4690.39
3068.54 3480.87 4690.56
3068.53 3482.59 4690.73
3068.52 3484.31 4690.89
3068.51 3486.03 4691.06
3068.5 3487.74 4691.22
3068.49 3489.47 4691.38
3068.48 3491.19 4691.53
3068.47 3492.91 4691.68
3068.46 3494.63 4691.82
3068.46 3496.36 4691.96
3068.45 3498.08 4692.1
3068.44 3499.8 4692.24
3068.43 3501.53 4692.4
3068.42 3503.25 4692.53
3068.41 3504.98 4692.66
3068.4 3506.71 4692.79
3068.4 3508.44 4692.91
3068.39 3510.17 4693.03
3068.38 3511.9 4693.15
3068.37 3513.63 4693.26
3068.37 3515.35 4693.38
3068.36 3517.09 4693.49
3068.35 3518.82 4693.6
3068.35 3520.55 4693.7
3068.34 3522.28 4693.81
3068.33 3524.01 4693.9
3068.33 3525.75 4694
3068.32 3527.48 4694.09
3068.31 3529.21 4694.22
3068.31 3530.95 4694.31
3068.3 3532.69 4694.39
3068.3 3534.42 4694.47
3068.29 3536.16 4694.55
3068.29 3537.89 4694.63
3068.28 3539.63 4694.7
3068.28 3541.37 4694.77
3068.27 3543.1 4694.85
3068.27 3544.84 4694.91
3068.27 3546.58 4694.97
3068.26 3548.32 4695.03
3068.26 3550.06 4695.09
3068.25 3551.8 4695.14
3068.25 3553.54 4695.19
3068.25 3555.28 4695.24
3068.25 3557.02 4695.28
3068.24 3558.76 4695.33
3068.24 3560.5 4695.37
3068.24 3562.24 4695.4
3068.24 3563.98 4695.44
3068.23 3565.72 4695.47
3068.23 3567.46 4695.5
3068.23 3569.2 4695.52
3068.23 3570.94 4695.57
3068.23 3572.68 4695.59
3068.23 3574.42 4695.61
3068.22 3576.16 4695.62
3068.22 3577.9 4695.63
3068.22 3579.65 4695.64
3068.22 3581.39 4695.65
3068.22 3583.13 4695.65
3068.22 3584.87 4695.65
3068.22 3586.61 4695.65
3068.22 3588.35 4695.64
3068.22 3590.1 4695.64
3068.22 3591.84 4695.62
3068.22 3593.58 4695.61
3068.23 3595.32 4695.59
3068.23 3597.06 4695.57
3068.23 3598.8 4695.56
3068.23 3600.54 4695.54
3068.23 3602.28 4695.51
3068.23 3604.02 4695.48
3068.24 3605.77 4695.44
3068.24 3607.51 4695.41
3068.24 3609.25 4695.37
3068.24 3610.99 4695.33
3068.25 3612.73 4695.29
3068.25 3614.47 4695.24
3068.25 3616.2 4695.19
3068.25 3617.94 4695.14
3068.26 3619.68 4695.08
3068.26 3621.42 4695.02
3068.27 3623.16 4694.96
3068.27 3624.9 4694.9
3068.27 3626.64 4694.84
3068.28 3628.37 4694.77
3068.28 3630.11 4694.7
3068.29 3631.85 4694.62
3068.29 3633.58 4694.55
3068.3 3635.32 4694.46
3068.3 3637.05 4694.38
3068.31 3638.79 4694.29
3068.31 3640.52 4694.19
3068.32 3642.26 4694.1
3068.33 3643.99 4694
3068.33 3645.72 4693.9
3068.34 3647.46 4693.8
3068.35 3649.19 4693.7
3068.35 3650.92 4693.59
3068.36 3652.65 4693.48
3068.37 3654.38 4693.38
3068.37 3656.11 4693.26
3068.38 3657.84 4693.15
3068.39 3659.57 4693.02
3068.4 3661.3 4692.9
3068.4 3663.03 4692.78
3068.41 3664.75 4692.65
3068.42 3666.48 4692.52
3068.43 3668.21 4692.37
3068.44 3669.93 4692.23
3068.45 3671.66 4692.09
3068.46 3673.38 4691.95
3068.47 3675.1 4691.8
3068.48 3676.82 4691.65
3068.49 3678.55 4691.5
3068.49 3680.27 4691.35
3068.5 3681.99 4691.21
3068.51 3683.71 4691.04
3068.53 3685.43 4690.87
3068.54 3687.14 4690.71
3068.55 3688.86 4690.54
3068.56 3690.58 4690.37
3068.57 3692.29 4690.2
3068.58 3694.01 4690.02
3068.59 3695.72 4689.88
3068.6 3697.44 4689.71
3068.61 3699.15 4689.52
3068.62 3700.86 4689.34
3068.63 3702.57 4689.15
3068.65 3704.28 4688.96
3068.66 3705.99 4688.76
3068.67 3707.7 4688.57
3068.68 3709.4 4688.37
3068.7 3711.11 4688.15
3068.71 3712.81 4687.95
3068.72 3714.51 4687.74
3068.74 3716.22 4687.53
3068.75 3717.92 4687.32
3068.76 3719.62 4687.11
3068.78 3721.32 4686.89
3068.79 3723.02 4686.67
3068.81 3724.71 4686.44
3068.82 3726.41 4686.23
3068.83 3728.11 4686
3068.85 3729.8 4685.77
3068.86 3731.49 4685.54
3068.1 3734.93 4697.66
3068.11 3736.64 4697.41
3068.13 3738.34 4697.16
3068.14 3740.06 4696.94
3068.16 3741.76 4696.69
3068.17 3743.47 4696.44
3068.19 3745.17 4696.19
3068.2 3746.88 4695.93
3068.22 3748.58 4695.67
3068.24 3750.28 4695.41
3068.25 3751.98 4695.15
3068.27 3753.68 4694.88
3068.29 3755.37 4694.61
3068.31 3757.07 4694.34
3068.32 3758.76 4694.06
3068.34 3760.46 4693.78
3068.36 3762.15 4693.5
3068.38 3763.84 4693.22
3068.39 3765.53 4692.96
3068.41 3767.22 4692.67
3068.43 3768.91 4692.38
3068.45 3770.59 4692.09
3068.47 3772.28 4691.8
3068.49 3773.96 4691.5
3068.5 3775.64 4691.2
3068.52 3777.32 4690.9
3068.54 3779 4690.59
3068.56 3780.67 4690.29
3068.58 3782.35 4690
3068.6 3784.03 4689.69
3068.62 3785.7 4689.37
3068.64 3787.37 4689.05
3068.66 3789.04 4688.73
3068.68 3790.71 4688.41
3068.7 3792.37 4688.09
3068.72 3794.04 4687.77
3068.74 3795.7 4687.44
3068.76 3797.36 4687.11
3068.78 3799.02 4686.77
3068.81 3800.68 4686.44
3068.83 3802.34 4686.1
3068.85 3803.99 4685.76
3068.1 3808.21 4697.65
3068.12 3809.88 4697.29
3068.14 3811.55 4696.94
3068.16 3813.21 4696.59
3068.19 3814.88 4696.23
3068.21 3816.54 4695.87
3068.23 3818.21 4695.51
3068.25 3819.87 4695.15
3068.28 3821.53 4694.79
3068.3 3823.19 4694.42
3068.32 3824.85 4694.07
3068.35 3826.5 4693.7
3068.37 3828.15 4693.32
3068.39 3829.8 4692.94
3068.42 3831.45 4692.56
3068.44 3833.1 4692.18
3068.47 3834.75 4691.8
3068.49 3836.4 4691.45
3068.51 3838.04 4691.05
3068.54 3839.68 4690.66
3068.56 3841.32 4690.27
3068.59 3842.95 4689.87
3068.61 3844.59 4689.48
3068.64 3846.22 4689.08
3068.66 3847.85 4688.67
3068.69 3849.48 4688.28
3068.72 3851.11 4687.87
3068.74 3852.74 4687.49
3068.77 3854.37 4687.08
3068.79 3855.99 4686.67
3068.82 3857.61 4686.25
3068.84 3859.23 4685.83
3057.22 3086.03 4898.74
3057.18 3087.83 4899.44
3057.14 3089.63 4900.14
3057.09 3091.44 4900.84
3057.05 3093.23 4901.56
3057 3095.04 4902.25
3056.96 3096.85 4902.94
3056.92 3098.67 4903.63
3056.88 3100.49 4904.32
3057.56 3106.71 4893.34
3057.51 3108.51 4894.01
3057.47 3110.32 4894.69
3057.43 3112.14 4895.36
3057.39 3113.95 4896.03
3057.35 3115.77 4896.7
3057.31 3117.6 4897.37
3057.27 3119.42 4898.04
3057.23 3121.25 4898.69
3057.18 3123.08 4899.35
3057.14 3124.92 4900.01
3057.1 3126.75 4900.67
3057.06 3128.59 4901.33
3057.02 3130.43 4901.98
3056.98 3132.28 4902.63
3056.94 3134.13 4903.28
3056.9 3135.97 4903.95
3056.86 3137.83 4904.59
3057.55 3143.78 4893.45
3057.51 3145.62 4894.09
3057.47 3147.46 4894.72
3057.43 3149.32 4895.32
3057.39 3151.17 4895.95
3057.36 3153.03 4896.56
3057.32 3154.89 4897.19
3057.28 3156.75 4897.81
3057.24 3158.61 4898.43
3057.2 3160.47 4899.05
3057.16 3162.34 4899.67
3057.12 3164.2 4900.31
3057.09 3166.07 4900.93
3057.05 3167.94 4901.56
3057.01 3169.81 4902.17
3056.97 3171.69 4902.77
3056.94 3173.58 4903.38
3056.9 3175.46 4903.98
3056.86 3177.35 4904.58
3057.56 3183 4893.29
3057.52 3184.88 4893.88
3057.49 3186.76 4894.47
3057.45 3188.64 4895.05
3057.41 3190.53 4895.63
3057.38 3192.41 4896.21
3057.34 3194.29 4896.81
3057.31 3196.19 4897.39
3057.27 3198.08 4897.96
3057.24 3199.98 4898.53
3057.2 3201.88 4899.1
3057.16 3203.78 4899.67
3057.13 3205.68 4900.24
3057.09 3207.59 4900.8
3057.06 3209.5 4901.36
3057.03 3211.41 4901.92
3056.99 3213.32 4902.47
3056.96 3215.24 4903.02
3056.92 3217.16 4903.57
3056.89 3219.07 4904.15
3056.85 3221 4904.7
3057.56 3226.32 4893.23
3057.53 3228.23 4893.77
3057.5 3230.14 4894.3
3057.46 3232.06 4894.83
3057.43 3233.97 4895.38
3057.4 3235.89 4895.91
3057.37 3237.81 4896.43
3057.33 3239.74 4896.95
3057.3 3241.67 4897.47
3057.27 3243.6 4897.99
3057.24 3245.53 4898.5
3057.21 3247.47 4899
3057.17 3249.41 4899.51
3057.14 3251.34 4900.04
3057.11 3253.28 4900.54
3057.08 3255.23 4901.04
3057.05 3257.17 4901.54
3057.02 3259.12 4902.04
3056.99 3261.08 4902.5
3056.96 3263.03 4903
3056.93 3264.99 4903.49
3056.9 3266.94 4903.97
3056.87 3268.9 4904.45
3057.59 3273.83 4892.82
3057.56 3275.78 4893.3
3057.53 3277.72 4893.77
3057.5 3279.67 4894.24
3057.47 3281.63 4894.71
3057.44 3283.58 4895.17
3057.41 3285.54 4895.63
3057.39 3287.5 4896.09
3057.36 3289.46 4896.52
3057.33 3291.42 4896.98
3057.3 3293.39 4897.44
3057.27 3295.35 4897.89
3057.25 3297.32 4898.33
3057.22 3299.29 4898.77
3057.19 3301.27 4899.21
3057.16 3303.24 4899.67
3057.14 3305.21 4900.11
3057.11 3307.19 4900.53
3057.09 3309.18 4900.95
3057.06 3311.16 4901.38
3057.03 3313.14 4901.8
3057.01 3315.13 4902.22
3056.98 3317.12 4902.64
3056.96 3319.11 4903.06
3056.93 3321.1 4903.46
3056.9 3323.1 4903.87
3056.88 3325.1 4904.27
3056.85 3327.1 4904.68
3057.59 3331.53 4892.85
3057.56 3333.51 4893.25
3057.54 3335.5 4893.64
3057.51 3337.49 4894.03
3057.49 3339.48 4894.41
3057.47 3341.47 4894.79
3057.44 3343.46 4895.17
3057.42 3345.45 4895.57
3057.4 3347.45 4895.93
3057.37 3349.44 4896.3
3057.35 3351.44 4896.67
3057.33 3353.45 4897.03
3057.31 3355.45 4897.39
3057.28 3357.45 4897.75
3057.26 3359.46 4898.1
3057.24 3361.47 4898.46
3057.22 3363.48 4898.8
3057.2 3365.49 4899.15
3057.18 3367.5 4899.49
3057.15 3369.52 4899.83
3057.13 3371.53 4900.17
3057.11 3373.55 4900.48
3057.09 3375.57 4900.83
3057.07 3377.59 4901.16
3057.05 3379.61 4901.48
3057.03 3381.64 4901.8
3057.01 3383.66 4902.12
3056.99 3385.69 4902.44
3056.97 3387.72 4902.74
3056.96 3389.75 4903.06
3056.94 3391.78 4903.36
3056.92 3393.81 4903.66
3056.9 3395.85 4903.96
3056.88 3397.88 4904.26
3056.86 3399.92 4904.56
3056.84 3401.96 4904.84
3057.59 3405.74 4892.77
3057.57 3407.76 4893.05
3057.56 3409.78 4893.33
3057.54 3411.81 4893.61
3057.52 3413.83 4893.88
3057.51 3415.86 4894.15
3070.36 3445.11 4686.55
3070.34 3446.81 4686.77
3070.33 3448.51 4686.98
3070.32 3450.2 4687.2
3070.3 3451.9 4687.41
3070.29 3453.61 4687.62
3070.28 3455.31 4687.83
3070.26 3457.01 4688.03
3070.25 3458.71 4688.27
3070.24 3460.41 4688.47
3070.23 3462.12 4688.67
3070.21 3463.83 4688.86
3070.2 3465.54 4689.05
3070.19 3467.24 4689.24
3070.18 3468.95 4689.42
3070.17 3470.66 4689.61
3070.16 3472.38 4689.79
3070.14 3474.09 4689.98
3070.13 3475.8 4690.16
3070.12 3477.51 4690.33
3070.11 3479.23 4690.5
3070.1 3480.94 4690.67
3070.09 3482.66 4690.83
3070.08 3484.38 4690.99
3070.07 3486.09 4691.16
3070.06 3487.81 4691.33
3070.05 3489.53 4691.48
3070.04 3491.25 4691.63
3070.03 3492.97 4691.78
3070.02 3494.69 4691.92
3070.01 3496.42 4692.07
3070.01 3498.14 4692.21
3070 3499.86 4692.35
3069.99 3501.59 4692.5
3069.98 3503.31 4692.63
3069.97 3505.04 4692.76
3069.96 3506.76 4692.89
3069.96 3508.49 4693.01
3069.95 3510.22 4693.13
3069.94 3511.95 4693.25
3069.93 3513.67 4693.36
3069.93 3515.4 4693.49
3069.92 3517.13 4693.59
3069.91 3518.86 4693.7
3069.91 3520.59 4693.81
3069.9 3522.33 4693.91
3069.89 3524.06 4694
3069.89 3525.79 4694.1
3069.88 3527.52 4694.19
3069.88 3529.25 4694.32
3069.87 3530.99 4694.41
3069.86 3532.72 4694.49
3069.86 3534.46 4694.57
3069.85 3536.19 4694.65
3069.85 3537.93 4694.73
3069.85 3539.66 4694.8
3069.84 3541.4 4694.87
3069.84 3543.13 4694.94
3069.83 3544.87 4695.01
3069.83 3546.61 4695.07
3069.82 3548.34 4695.13
3069.82 3550.08 4695.19
3069.82 3551.82 4695.24
3069.81 3553.56 4695.29
3069.81 3555.3 4695.34
3069.81 3557.03 4695.38
3069.81 3558.77 4695.42
3069.8 3560.51 4695.46
3069.8 3562.25 4695.5
3069.8 3563.99 4695.53
3069.8 3565.73 4695.56
3069.8 3567.47 4695.59
3069.79 3569.21 4695.62
3069.79 3570.95 4695.67
3069.79 3572.69 4695.69
3069.79 3574.43 4695.71
3069.79 3576.17 4695.72
3069.79 3577.91 4695.73
3069.79 3579.65 4695.74
3069.79 3581.39 4695.74
3069.79 3583.13 4695.75
3069.79 3584.87 4695.75
3069.79 3586.61 4695.75
3069.79 3588.35 4695.74
3069.79 3590.09 4695.73
3069.79 3591.83 4695.72
3069.79 3593.57 4695.71
3069.79 3595.31 4695.69
3069.79 3597.05 4695.67
3069.79 3598.79 4695.66
3069.79 3600.53 4695.64
3069.8 3602.27 4695.61
3069.8 3604.01 4695.58
3069.8 3605.75 4695.54
3069.8 3607.49 4695.51
3069.8 3609.23 4695.47
3069.81 3610.97 4695.42
3069.81 3612.71 4695.39
3069.81 3614.44 4695.34
3069.81 3616.18 4695.29
3069.82 3617.92 4695.24
3069.82 3619.66 4695.18
3069.83 3621.39 4695.12
3069.83 3623.13 4695.06
3069.83 3624.87 4695
3069.84 3626.61 4694.94
3069.84 3628.34 4694.87
3069.85 3630.08 4694.8
3069.85 3631.81 4694.72
3069.85 3633.55 4694.65
3069.86 3635.28 4694.56
3069.87 3637.02 4694.48
3069.87 3638.75 4694.39
3069.88 3640.48 4694.29
3069.88 3642.22 4694.2
3069.89 3643.95 4694.1
3069.89 3645.68 4694
3069.9 3647.41 4693.9
3069.91 3649.14 4693.8
3069.91 3650.87 4693.69
3069.92 3652.6 4693.58
3069.93 3654.33 4693.48
3069.93 3656.06 4693.36
3069.94 3657.79 4693.25
3069.95 3659.52 4693.13
3069.96 3661.24 4693
3069.96 3662.97 4692.88
3069.97 3664.7 4692.75
3069.98 3666.42 4692.62
3069.99 3668.15 4692.47
3070 3669.87 4692.33
3070.01 3671.59 4692.19
3070.02 3673.32 4692.05
3070.02 3675.04 4691.91
3070.03 3676.76 4691.76
3070.04 3678.48 4691.61
3070.05 3680.2 4691.45
3070.06 3681.92 4691.31
3070.07 3683.64 4691.14
3070.08 3685.35 4690.98
3070.09 3687.07 4690.81
3070.1 3688.79 4690.65
3070.11 3690.5 4690.48
3070.12 3692.22 4690.3
3070.13 3693.93 4690.13
3070.14 3695.64 4689.98
3070.15 3697.36 4689.81
3070.17 3699.07 4689.63
3070.18 3700.78 4689.44
3070.19 3702.49 4689.25
3070.2 3704.2 4689.06
3070.21 3705.9 4688.87
3070.22 3707.61 4688.67
3070.24 3709.31 4688.47
3070.25 3711.02 4688.26
3070.26 3712.72 4688.06
3070.28 3714.42 4687.85
3070.29 3716.12 4687.64
3070.3 3717.82 4687.43
3070.31 3719.52 4687.21
3070.33 3721.22 4687
3070.34 3722.92 4686.78
3070.36 3724.62 4686.55
3070.37 3726.31 4686.34
3070.38 3728.01 4686.11
3070.4 3729.7 4685.88
3070.41 3731.39 4685.65
3070.43 3733.08 4685.41
3069.68 3736.53 4697.53
3069.69 3738.24 4697.28
3069.71 3739.95 4697.06
3069.72 3741.65 4696.81
3069.74 3743.36 4696.56
3069.75 3745.06 4696.3
3069.77 3746.76 4696.05
3069.78 3748.46 4695.79
3069.8 3750.16 4695.52
3069.82 3751.86 4695.26
3069.83 3753.56 4694.99
3069.85 3755.26 4694.72
3069.87 3756.95 4694.45
3069.88 3758.64 4694.18
3069.9 3760.34 4693.9
3069.92 3762.03 4693.62
3069.94 3763.72 4693.34
3069.95 3765.41 4693.08
3069.97 3767.09 4692.79
3069.99 3768.78 4692.5
3070.01 3770.46 4692.21
3070.02 3772.15 4691.92
3070.04 3773.83 4691.62
3070.06 3775.51 4691.32
3070.08 3777.19 4691.02
3070.1 3778.86 4690.71
3070.12 3780.54 4690.41
3070.14 3782.22 4690.12
3070.15 3783.89 4689.81
3070.17 3785.56 4689.49
3070.19 3787.23 4689.18
3070.21 3788.9 4688.86
3070.23 3790.56 4688.54
3070.25 3792.23 4688.21
3070.27 3793.89 4687.89
3070.29 3795.56 4687.56
3070.31 3797.22 4687.23
3070.33 3798.88 4686.9
3070.35 3800.53 4686.56
3070.38 3802.19 4686.23
3070.4 3803.84 4685.89
3070.42 3805.5 4685.54
3069.68 3809.72 4697.42
3069.7 3811.39 4697.07
3069.73 3813.06 4696.72
3069.75 3814.72 4696.36
3069.77 3816.39 4696
3069.79 3818.05 4695.64
3069.82 3819.71 4695.28
3069.84 3821.37 4694.92
3069.86 3823.02 4694.55
3069.88 3824.68 4694.2
3069.91 3826.34 4693.83
3069.93 3827.99 4693.46
3069.95 3829.64 4693.08
3069.98 3831.29 4692.7
3070 3832.93 4692.32
3070.02 3834.58 4691.93
3070.04 3836.23 4691.59
3070.07 3837.87 4691.19
3070.09 3839.51 4690.8
3070.12 3841.15 4690.41
3070.14 3842.78 4690.01
3070.17 3844.41 4689.62
3070.19 3846.05 4689.22
3070.22 3847.68 4688.81
3070.24 3849.31 4688.42
3070.27 3850.93 4688.02
3070.29 3852.56 4687.63
3070.31 3854.19 4687.22
3070.34 3855.81 4686.81
3070.37 3857.43 4686.39
3070.39 3859.04 4685.98
3059.07 3086.34 4898.98
3059.03 3088.14 4899.67
3058.99 3089.94 4900.37
3058.95 3091.74 4901.07
3058.9 3093.54 4901.79
3058.86 3095.35 4902.48
3058.82 3097.16 4903.17
3058.78 3098.97 4903.86
3058.74 3100.79 4904.54
3059.4 3107 4893.56
3059.36 3108.81 4894.24
3059.32 3110.62 4894.91
3059.28 3112.43 4895.58
3059.24 3114.25 4896.25
3059.2 3116.07 4896.92
3059.16 3117.89 4897.59
3059.12 3119.71 4898.25
3059.08 3121.54 4898.91
3059.04 3123.37 4899.57
3059 3125.2 4900.23
3058.96 3127.04 4900.89
3058.92 3128.88 4901.54
3058.88 3130.72 4902.2
3058.84 3132.56 4902.85
3058.8 3134.41 4903.51
3058.76 3136.26 4904.16
3059.43 3142.22 4893.02
3059.39 3144.05 4893.66
3059.36 3145.9 4894.29
3059.32 3147.74 4894.93
3059.28 3149.6 4895.53
3059.24 3151.45 4896.16
3059.21 3153.31 4896.77
3059.17 3155.16 4897.39
3059.13 3157.02 4898.01
3059.09 3158.88 4898.64
3059.06 3160.74 4899.25
3059.02 3162.6 4899.9
3058.98 3164.47 4900.52
3058.94 3166.33 4901.15
3058.91 3168.2 4901.76
3058.87 3170.08 4902.37
3058.83 3171.96 4902.97
3058.8 3173.84 4903.58
3058.76 3175.73 4904.18
3059.44 3181.39 4892.89
3059.41 3183.26 4893.48
3059.37 3185.14 4894.07
3059.33 3187.02 4894.66
3059.3 3188.9 4895.24
3059.26 3190.78 4895.82
3059.23 3192.67 4896.4
3059.19 3194.55 4897
3059.16 3196.44 4897.58
3059.12 3198.33 4898.15
3059.09 3200.23 4898.72
3059.05 3202.12 4899.29
3059.02 3204.03 4899.86
3058.99 3205.93 4900.42
3058.95 3207.83 4900.98
3058.92 3209.74 4901.54
3058.88 3211.65 4902.1
3058.85 3213.57 4902.65
3058.82 3215.48 4903.21
3058.78 3217.4 4903.76
3058.75 3219.31 4904.34
3059.44 3224.64 4892.87
3059.41 3226.55 4893.41
3059.38 3228.46 4893.94
3059.35 3230.37 4894.48
3059.31 3232.29 4895.01
3059.28 3234.2 4895.56
3059.25 3236.12 4896.08
3059.22 3238.04 4896.61
3059.19 3239.97 4897.13
3059.15 3241.89 4897.64
3059.12 3243.82 4898.16
3059.09 3245.75 4898.67
3059.06 3247.69 4899.17
3059.03 3249.63 4899.68
3059 3251.56 4900.21
3058.97 3253.5 4900.71
3058.94 3255.44 4901.21
3058.91 3257.39 4901.71
3058.88 3259.34 4902.21
3058.85 3261.29 4902.67
3058.82 3263.25 4903.16
3058.79 3265.2 4903.65
3058.76 3267.16 4904.14
3058.73 3269.11 4904.62
3059.44 3274.04 4892.98
3059.41 3275.98 4893.47
3059.38 3277.93 4893.94
3059.35 3279.88 4894.41
3059.32 3281.83 4894.87
3059.29 3283.78 4895.33
3059.27 3285.74 4895.79
3059.24 3287.7 4896.25
3059.21 3289.66 4896.68
3059.18 3291.62 4897.14
3059.16 3293.58 4897.6
3059.13 3295.55 4898.05
3059.1 3297.51 4898.49
3059.08 3299.49 4898.93
3059.05 3301.46 4899.37
3059.02 3303.43 4899.83
3059 3305.4 4900.26
3058.97 3307.38 4900.68
3058.94 3309.36 4901.11
3058.92 3311.34 4901.53
3058.89 3313.33 4901.95
3058.87 3315.31 4902.37
3058.84 3317.3 4902.79
3058.82 3319.29 4903.21
3058.79 3321.28 4903.61
3058.77 3323.28 4904.02
3058.74 3325.27 4904.42
3058.72 3327.27 4904.82
3059.43 3331.7 4893
3059.41 3333.68 4893.4
3059.39 3335.67 4893.79
3059.36 3337.65 4894.17
3059.34 3339.64 4894.56
3059.32 3341.63 4894.94
3059.29 3343.62 4895.31
3059.27 3345.61 4895.71
3059.25 3347.61 4896.07
3059.23 3349.6 4896.44
3059.2 3351.6 4896.81
3059.18 3353.6 4897.17
3059.16 3355.6 4897.53
3059.14 3357.61 4897.89
3059.12 3359.61 4898.24
3059.1 3361.62 4898.6
3059.08 3363.63 4898.94
3059.05 3365.64 4899.29
3059.03 3367.65 4899.63
3059.01 3369.66 4899.97
3058.99 3371.68 4900.31
3058.97 3373.7 4900.62
3058.95 3375.71 4900.97
3058.93 3377.73 4901.29
3058.91 3379.75 4901.62
3058.89 3381.78 4901.94
3058.88 3383.8 4902.26
3058.86 3385.83 4902.57
3058.84 3387.85 4902.88
3058.82 3389.88 4903.19
3058.8 3391.91 4903.5
3058.78 3393.94 4903.8
3058.76 3395.98 4904.1
3058.75 3398.01 4904.39
3058.73 3400.05 4904.69
3058.71 3402.09 4904.97
3059.44 3405.86 4892.9
3059.42 3407.88 4893.18
3059.41 3409.9 4893.46
3059.39 3411.93 4893.74
3059.37 3413.95 4894.01
3059.36 3415.98 4894.28
3071.9 3445.21 4686.65
3071.89 3446.9 4686.87
3071.88 3448.6 4687.09
3071.86 3450.3 4687.3
3071.85 3452 4687.52
3071.84 3453.7 4687.73
3071.83 3455.4 4687.93
3071.81 3457.1 4688.16
3071.8 3458.8 4688.38
3071.79 3460.5 4688.57
3071.78 3462.21 4688.77
3071.76 3463.91 4688.96
3071.75 3465.62 4689.15
3071.74 3467.33 4689.34
3071.73 3469.03 4689.53
3071.72 3470.74 4689.71
3071.71 3472.45 4689.9
3071.7 3474.16 4690.09
3071.69 3475.88 4690.26
3071.68 3477.59 4690.43
3071.67 3479.3 4690.6
3071.66 3481.02 4690.77
3071.65 3482.73 4690.93
3071.64 3484.45 4691.09
3071.63 3486.16 4691.27
3071.62 3487.88 4691.43
3071.61 3489.6 4691.58
3071.6 3491.32 4691.73
3071.59 3493.04 4691.88
3071.58 3494.76 4692.03
3071.57 3496.48 4692.17
3071.56 3498.2 4692.31
3071.55 3499.92 4692.45
3071.54 3501.64 4692.6
3071.54 3503.37 4692.73
3071.53 3505.09 4692.86
3071.52 3506.82 4692.99
3071.51 3508.54 4693.11
3071.51 3510.27 4693.23
3071.5 3512 4693.35
3071.49 3513.72 4693.46
3071.49 3515.45 4693.58
3071.48 3517.18 4693.69
3071.47 3518.91 4693.8
3071.47 3520.64 4693.9
3071.46 3522.37 4694
3071.45 3524.1 4694.1
3071.45 3525.83 4694.2
3071.44 3527.56 4694.29
3071.43 3529.29 4694.42
3071.43 3531.02 4694.51
3071.42 3532.76 4694.59
3071.42 3534.49 4694.67
3071.41 3536.22 4694.75
3071.41 3537.96 4694.83
3071.41 3539.69 4694.9
3071.4 3541.43 4694.97
3071.4 3543.16 4695.04
3071.39 3544.9 4695.11
3071.39 3546.63 4695.17
3071.39 3548.37 4695.23
3071.38 3550.11 4695.28
3071.38 3551.84 4695.34
3071.38 3553.58 4695.39
3071.37 3555.32 4695.44
3071.37 3557.05 4695.48
3071.37 3558.79 4695.52
3071.37 3560.53 4695.56
3071.36 3562.27 4695.6
3071.36 3564 4695.63
3071.36 3565.74 4695.66
3071.36 3567.48 4695.69
3071.36 3569.22 4695.71
3071.35 3570.96 4695.76
3071.35 3572.7 4695.78
3071.35 3574.44 4695.8
3071.35 3576.17 4695.81
3071.35 3577.91 4695.83
3071.35 3579.65 4695.83
3071.35 3581.39 4695.84
3071.35 3583.13 4695.84
3071.35 3584.87 4695.85
3071.35 3586.61 4695.84
3071.35 3588.35 4695.84
3071.35 3590.09 4695.83
3071.35 3591.83 4695.82
3071.35 3593.56 4695.8
3071.35 3595.3 4695.79
3071.35 3597.04 4695.77
3071.35 3598.78 4695.76
3071.36 3600.52 4695.73
3071.36 3602.26 4695.7
3071.36 3604 4695.67
3071.36 3605.73 4695.64
3071.36 3607.47 4695.6
3071.37 3609.21 4695.56
3071.37 3610.95 4695.52
3071.37 3612.69 4695.49
3071.37 3614.42 4695.44
3071.38 3616.16 4695.39
3071.38 3617.9 4695.33
3071.38 3619.63 4695.28
3071.39 3621.37 4695.22
3071.39 3623.1 4695.16
3071.39 3624.84 4695.09
3071.4 3626.58 4695.04
3071.4 3628.31 4694.97
3071.41 3630.04 4694.9
3071.41 3631.78 4694.82
3071.42 3633.51 4694.74
3071.42 3635.25 4694.66
3071.43 3636.98 4694.58
3071.43 3638.71 4694.49
3071.44 3640.44 4694.39
3071.44 3642.17 4694.3
3071.45 3643.91 4694.2
3071.45 3645.64 4694.1
3071.46 3647.37 4694
3071.47 3649.1 4693.9
3071.47 3650.83 4693.79
3071.48 3652.55 4693.68
3071.49 3654.28 4693.58
3071.49 3656.01 4693.46
3071.5 3657.74 4693.35
3071.51 3659.46 4693.23
3071.51 3661.19 4693.1
3071.52 3662.92 4692.98
3071.53 3664.64 4692.85
3071.54 3666.36 4692.72
3071.55 3668.09 4692.57
3071.55 3669.81 4692.43
3071.56 3671.53 4692.29
3071.57 3673.25 4692.15
3071.58 3674.97 4692.01
3071.59 3676.69 4691.86
3071.6 3678.41 4691.71
3071.61 3680.13 4691.55
3071.62 3681.85 4691.41
3071.63 3683.57 4691.24
3071.64 3685.28 4691.08
3071.65 3687 4690.92
3071.66 3688.71 4690.75
3071.67 3690.43 4690.58
3071.68 3692.14 4690.41
3071.69 3693.85 4690.23
3071.7 3695.57 4690.08
3071.71 3697.28 4689.92
3071.72 3698.99 4689.73
3071.73 3700.7 4689.55
3071.74 3702.4 4689.36
3071.75 3704.11 4689.17
3071.76 3705.82 4688.97
3071.78 3707.52 4688.78
3071.79 3709.23 4688.58
3071.8 3710.93 4688.37
3071.81 3712.63 4688.16
3071.83 3714.33 4687.96
3071.84 3716.03 4687.75
3071.85 3717.73 4687.54
3071.86 3719.43 4687.32
3071.88 3721.13 4687.1
3071.89 3722.82 4686.88
3071.9 3724.52 4686.66
3071.92 3726.21 4686.45
3071.93 3727.91 4686.22
3071.94 3729.6 4685.99
3071.96 3731.29 4685.76
3071.97 3732.98 4685.52
3071.24 3736.42 4697.64
3071.26 3738.13 4697.39
3071.27 3739.84 4697.17
3071.28 3741.54 4696.92
3071.3 3743.25 4696.67
3071.31 3744.95 4696.42
3071.33 3746.65 4696.16
3071.35 3748.35 4695.9
3071.36 3750.05 4695.64
3071.38 3751.75 4695.38
3071.39 3753.44 4695.11
3071.41 3755.14 4694.84
3071.43 3756.83 4694.57
3071.44 3758.52 4694.29
3071.46 3760.21 4694.02
3071.48 3761.9 4693.74
3071.49 3763.59 4693.46
3071.51 3765.28 4693.2
3071.53 3766.97 4692.91
3071.54 3768.65 4692.62
3071.56 3770.34 4692.33
3071.58 3772.02 4692.03
3071.6 3773.7 4691.74
3071.61 3775.38 4691.44
3071.63 3777.05 4691.14
3071.65 3778.73 4690.83
3071.67 3780.41 4690.53
3071.69 3782.08 4690.24
3071.71 3783.75 4689.93
3071.73 3785.42 4689.61
3071.74 3787.09 4689.3
3071.76 3788.76 4688.98
3071.78 3790.42 4688.66
3071.8 3792.09 4688.34
3071.82 3793.75 4688.02
3071.84 3795.41 4687.69
3071.86 3797.07 4687.36
3071.88 3798.73 4687.02
3071.9 3800.39 4686.69
3071.92 3802.04 4686.35
3071.94 3803.69 4686.01
3071.96 3805.35 4685.67
3071.25 3809.57 4697.55
3071.27 3811.24 4697.2
3071.29 3812.9 4696.85
3071.31 3814.57 4696.49
3071.33 3816.23 4696.13
3071.35 3817.89 4695.77
3071.38 3819.55 4695.41
3071.4 3821.21 4695.05
3071.42 3822.86 4694.68
3071.44 3824.52 4694.33
3071.46 3826.17 4693.96
3071.49 3827.82 4693.59
3071.51 3829.47 4693.21
3071.53 3831.12 4692.83
3071.55 3832.77 4692.45
3071.58 3834.41 4692.07
3071.6 3836.06 4691.72
3071.62 3837.7 4691.33
3071.65 3839.34 4690.94
3071.67 3840.97 4690.54
3071.69 3842.61 4690.15
3071.72 3844.24 4689.75
3071.74 3845.87 4689.35
3071.77 3847.5 4688.95
3071.79 3849.13 4688.56
3071.81 3850.76 4688.16
3071.84 3852.39 4687.77
3071.86 3854.01 4687.36
3071.89 3855.63 4686.95
3071.91 3857.25 4686.54
3071.94 3858.86 4686.12
3071.96 3860.48 4685.7
3060.92 3086.65 4899.21
3060.88 3088.44 4899.9
3060.84 3090.24 4900.6
3060.8 3092.04 4901.29
3060.76 3093.84 4902.01
3060.72 3095.65 4902.71
3060.68 3097.46 4903.4
3060.64 3099.27 4904.08
3061.28 3105.5 4893.09
3061.24 3107.3 4893.78
3061.2 3109.1 4894.46
3061.16 3110.91 4895.13
3061.12 3112.73 4895.8
3061.08 3114.54 4896.47
3061.04 3116.36 4897.14
3061.01 3118.18 4897.81
3060.97 3120 4898.47
3060.93 3121.83 4899.12
3060.89 3123.66 4899.78
3060.85 3125.49 4900.45
3060.81 3127.33 4901.1
3060.77 3129.17 4901.76
3060.73 3131.01 4902.41
3060.7 3132.85 4903.06
3060.66 3134.69 4903.72
3060.62 3136.54 4904.37
3061.28 3142.5 4893.23
3061.24 3144.33 4893.87
3061.2 3146.17 4894.5
3061.16 3148.02 4895.13
3061.13 3149.87 4895.74
3061.09 3151.72 4896.36
3061.05 3153.58 4896.97
3061.02 3155.43 4897.59
3060.98 3157.29 4898.22
3060.94 3159.15 4898.84
3060.91 3161.01 4899.45
3060.87 3162.87 4900.1
3060.83 3164.73 4900.72
3060.8 3166.6 4901.35
3060.76 3168.47 4901.96
3060.72 3170.35 4902.57
3060.69 3172.22 4903.17
3060.65 3174.11 4903.77
3060.62 3175.99 4904.37
3061.28 3181.65 4893.08
3061.25 3183.52 4893.67
3061.21 3185.4 4894.26
3061.18 3187.27 4894.85
3061.15 3189.15 4895.43
3061.11 3191.04 4896.01
3061.08 3192.92 4896.59
3061.04 3194.8 4897.19
3061.01 3196.69 4897.76
3060.97 3198.58 4898.34
3060.94 3200.48 4898.91
3060.91 3202.37 4899.48
3060.87 3204.27 4900.04
3060.84 3206.18 4900.61
3060.81 3208.08 4901.17
3060.77 3209.99 4901.73
3060.74 3211.9 4902.28
3060.71 3213.81 4902.84
3060.68 3215.72 4903.39
3060.64 3217.64 4903.94
3060.61 3219.55 4904.51
3061.29 3224.88 4893.05
3061.25 3226.79 4893.59
3061.22 3228.7 4894.12
3061.19 3230.61 4894.65
3061.16 3232.52 4895.18
3061.13 3234.43 4895.74
3061.1 3236.35 4896.26
3061.07 3238.27 4896.78
3061.04 3240.19 4897.3
3061 3242.12 4897.82
3060.97 3244.05 4898.33
3060.94 3245.98 4898.84
3060.91 3247.91 4899.34
3060.88 3249.85 4899.85
3060.85 3251.78 4900.38
3060.82 3253.72 4900.88
3060.79 3255.66 4901.38
3060.77 3257.61 4901.88
3060.74 3259.55 4902.37
3060.71 3261.51 4902.84
3060.68 3263.46 4903.33
3060.65 3265.41 4903.82
3060.62 3267.37 4904.3
3060.59 3269.33 4904.78
3061.28 3274.25 4893.14
3061.25 3276.19 4893.63
3061.22 3278.13 4894.1
3061.2 3280.08 4894.57
3061.17 3282.03 4895.03
3061.14 3283.98 4895.49
3061.11 3285.94 4895.95
3061.09 3287.9 4896.41
3061.06 3289.86 4896.84
3061.03 3291.81 4897.31
3061.01 3293.78 4897.76
3060.98 3295.74 4898.2
3060.96 3297.71 4898.64
3060.93 3299.68 4899.08
3060.9 3301.65 4899.52
3060.88 3303.62 4899.98
3060.85 3305.59 4900.4
3060.83 3307.57 4900.83
3060.8 3309.55 4901.26
3060.78 3311.53 4901.68
3060.75 3313.51 4902.1
3060.73 3315.5 4902.52
3060.7 3317.48 4902.94
3060.68 3319.47 4903.36
3060.65 3321.46 4903.76
3060.63 3323.46 4904.17
3060.61 3325.45 4904.57
3060.58 3327.45 4904.97
3061.28 3331.88 4893.14
3061.26 3333.86 4893.54
3061.23 3335.84 4893.93
3061.21 3337.82 4894.32
3061.19 3339.81 4894.7
3061.17 3341.8 4895.08
3061.14 3343.79 4895.46
3061.12 3345.78 4895.85
3061.1 3347.77 4896.21
3061.08 3349.77 4896.58
3061.06 3351.76 4896.95
3061.03 3353.76 4897.31
3061.01 3355.76 4897.67
3060.99 3357.76 4898.03
3060.97 3359.77 4898.38
3060.95 3361.77 4898.73
3060.93 3363.78 4899.08
3060.91 3365.79 4899.43
3060.89 3367.8 4899.77
3060.87 3369.81 4900.11
3060.85 3371.82 4900.44
3060.83 3373.84 4900.76
3060.81 3375.86 4901.1
3060.79 3377.88 4901.43
3060.77 3379.89 4901.75
3060.75 3381.92 4902.07
3060.73 3383.94 4902.39
3060.72 3385.96 4902.7
3060.7 3387.99 4903.01
3060.68 3390.02 4903.32
3060.66 3392.05 4903.63
3060.64 3394.08 4903.93
3060.63 3396.11 4904.23
3060.61 3398.14 4904.52
3060.59 3400.18 4904.82
3061.3 3403.97 4892.74
3061.29 3405.99 4893.03
3061.27 3408.01 4893.31
3061.25 3410.03 4893.59
3061.24 3412.05 4893.86
3061.22 3414.07 4894.13
3061.21 3416.09 4894.41
3073.45 3445.3 4686.76
3073.44 3447 4686.98
3073.42 3448.69 4687.19
3073.41 3450.39 4687.41
3073.4 3452.09 4687.62
3073.39 3453.79 4687.83
3073.37 3455.49 4688.04
3073.36 3457.19 4688.26
3073.35 3458.89 4688.48
3073.34 3460.59 4688.68
3073.33 3462.29 4688.87
3073.31 3464 4689.06
3073.3 3465.7 4689.26
3073.29 3467.41 4689.44
3073.28 3469.11 4689.63
3073.27 3470.82 4689.81
3073.26 3472.53 4690.01
3073.25 3474.24 4690.19
3073.24 3475.95 4690.36
3073.23 3477.66 4690.53
3073.22 3479.38 4690.7
3073.21 3481.09 4690.87
3073.2 3482.8 4691.03
3073.19 3484.52 4691.19
3073.18 3486.23 4691.36
3073.17 3487.95 4691.53
3073.16 3489.66 4691.68
3073.15 3491.38 4691.83
3073.14 3493.1 4691.98
3073.13 3494.82 4692.12
3073.13 3496.54 4692.27
3073.12 3498.26 4692.4
3073.11 3499.98 4692.54
3073.1 3501.7 4692.7
3073.09 3503.43 4692.83
3073.08 3505.15 4692.96
3073.08 3506.87 4693.08
3073.07 3508.6 4693.21
3073.06 3510.32 4693.33
3073.06 3512.05 4693.44
3073.05 3513.77 4693.56
3073.04 3515.5 4693.68
3073.04 3517.23 4693.79
3073.03 3518.96 4693.9
3073.02 3520.68 4694
3073.02 3522.41 4694.1
3073.01 3524.14 4694.2
3073.01 3525.87 4694.29
3073 3527.6 4694.39
3072.99 3529.33 4694.51
3072.99 3531.06 4694.6
3072.98 3532.79 4694.68
3072.98 3534.53 4694.77
3072.97 3536.26 4694.84
3072.97 3537.99 4694.92
3072.96 3539.72 4694.99
3072.96 3541.46 4695.06
3072.96 3543.19 4695.14
3072.95 3544.93 4695.2
3072.95 3546.66 4695.26
3072.95 3548.39 4695.32
3072.94 3550.13 4695.38
3072.94 3551.87 4695.43
3072.94 3553.6 4695.48
3072.93 3555.34 4695.53
3072.93 3557.07 4695.57
3072.93 3558.81 4695.61
3072.93 3560.55 4695.65
3072.92 3562.28 4695.69
3072.92 3564.02 4695.72
3072.92 3565.76 4695.75
3072.92 3567.49 4695.78
3072.92 3569.23 4695.81
3072.91 3570.97 4695.86
3072.91 3572.7 4695.88
3072.91 3574.44 4695.89
3072.91 3576.18 4695.91
3072.91 3577.92 4695.92
3072.91 3579.66 4695.93
3072.91 3581.39 4695.93
3072.91 3583.13 4695.94
3072.91 3584.87 4695.94
3072.91 3586.61 4695.94
3072.91 3588.34 4695.93
3072.91 3590.08 4695.92
3072.91 3591.82 4695.91
3072.91 3593.56 4695.9
3072.91 3595.3 4695.88
3072.91 3597.03 4695.86
3072.91 3598.77 4695.85
3072.92 3600.51 4695.82
3072.92 3602.24 4695.8
3072.92 3603.98 4695.77
3072.92 3605.72 4695.73
3072.92 3607.46 4695.7
3072.93 3609.19 4695.66
3072.93 3610.93 4695.61
3072.93 3612.66 4695.58
3072.93 3614.4 4695.53
3072.94 3616.14 4695.48
3072.94 3617.87 4695.43
3072.94 3619.61 4695.37
3072.95 3621.34 4695.31
3072.95 3623.08 4695.25
3072.95 3624.81 4695.19
3072.96 3626.55 4695.13
3072.96 3628.28 4695.06
3072.96 3630.01 4694.99
3072.97 3631.74 4694.92
3072.97 3633.48 4694.84
3072.98 3635.21 4694.76
3072.98 3636.94 4694.67
3072.99 3638.67 4694.58
3072.99 3640.4 4694.48
3073 3642.13 4694.39
3073.01 3643.86 4694.3
3073.01 3645.59 4694.2
3073.02 3647.32 4694.1
3073.02 3649.05 4693.99
3073.03 3650.78 4693.89
3073.04 3652.51 4693.78
3073.04 3654.23 4693.67
3073.05 3655.96 4693.56
3073.06 3657.69 4693.44
3073.06 3659.41 4693.32
3073.07 3661.14 4693.2
3073.08 3662.86 4693.07
3073.09 3664.58 4692.95
3073.09 3666.31 4692.81
3073.1 3668.03 4692.67
3073.11 3669.75 4692.53
3073.12 3671.47 4692.39
3073.13 3673.19 4692.25
3073.13 3674.91 4692.1
3073.14 3676.63 4691.96
3073.15 3678.35 4691.81
3073.16 3680.06 4691.65
3073.17 3681.78 4691.51
3073.18 3683.5 4691.34
3073.19 3685.21 4691.18
3073.2 3686.93 4691.02
3073.21 3688.64 4690.85
3073.22 3690.35 4690.68
3073.23 3692.06 4690.51
3073.24 3693.77 4690.33
3073.25 3695.49 4690.16
3073.26 3697.2 4690.02
3073.27 3698.91 4689.83
3073.28 3700.61 4689.65
3073.29 3702.32 4689.46
3073.3 3704.03 4689.27
3073.31 3705.73 4689.08
3073.32 3707.44 4688.88
3073.34 3709.14 4688.68
3073.35 3710.84 4688.47
3073.36 3712.54 4688.27
3073.37 3714.24 4688.06
3073.39 3715.94 4687.85
3073.4 3717.64 4687.64
3073.41 3719.34 4687.43
3073.42 3721.03 4687.21
3073.44 3722.73 4686.99
3073.45 3724.42 4686.76
3073.46 3726.11 4686.55
3073.48 3727.81 4686.33
3073.49 3729.5 4686.1
3073.5 3731.19 4685.86
3073.52 3732.88 4685.63
3072.8 3736.32 4697.75
3072.82 3738.02 4697.5
3072.83 3739.73 4697.28
3072.84 3741.44 4697.03
3072.86 3743.14 4696.78
3072.87 3744.84 4696.52
3072.89 3746.54 4696.27
3072.9 3748.24 4696.01
3072.92 3749.93 4695.75
3072.94 3751.63 4695.49
3072.95 3753.33 4695.22
3072.97 3755.02 4694.95
3072.98 3756.71 4694.68
3073 3758.4 4694.41
3073.02 3760.09 4694.13
3073.03 3761.78 4693.85
3073.05 3763.47 4693.57
3073.07 3765.15 4693.29
3073.08 3766.84 4693.02
3073.1 3768.53 4692.74
3073.11 3770.21 4692.44
3073.13 3771.89 4692.15
3073.15 3773.57 4691.85
3073.17 3775.24 4691.56
3073.19 3776.92 4691.25
3073.2 3778.6 4690.95
3073.22 3780.27 4690.65
3073.24 3781.95 4690.36
3073.26 3783.62 4690.05
3073.27 3785.28 4689.73
3073.29 3786.95 4689.42
3073.31 3788.62 4689.1
3073.33 3790.28 4688.78
3073.35 3791.95 4688.46
3073.37 3793.61 4688.14
3073.39 3795.27 4687.81
3073.41 3796.93 4687.48
3073.43 3798.58 4687.15
3073.45 3800.24 4686.81
3073.47 3801.89 4686.47
3073.49 3803.54 4686.13
3073.51 3805.2 4685.79
3072.81 3809.42 4697.68
3072.83 3811.08 4697.33
3072.85 3812.75 4696.97
3072.87 3814.41 4696.62
3072.89 3816.07 4696.26
3072.91 3817.73 4695.9
3072.93 3819.39 4695.54
3072.95 3821.05 4695.18
3072.98 3822.7 4694.81
3073 3824.36 4694.46
3073.02 3826.01 4694.09
3073.04 3827.66 4693.72
3073.06 3829.31 4693.34
3073.08 3830.95 4692.96
3073.11 3832.6 4692.58
3073.13 3834.24 4692.2
3073.15 3835.89 4691.86
3073.17 3837.53 4691.47
3073.2 3839.17 4691.07
3073.22 3840.8 4690.68
3073.24 3842.43 4690.28
3073.27 3844.07 4689.89
3073.29 3845.7 4689.49
3073.31 3847.32 4689.09
3073.34 3848.95 4688.7
3073.36 3850.58 4688.29
3073.38 3852.21 4687.91
3073.41 3853.83 4687.5
3073.43 3855.45 4687.09
3073.46 3857.06 4686.67
3073.48 3858.68 4686.26
3073.5 3860.29 4685.84
3062.77 3086.95 4899.43
3062.73 3088.75 4900.13
3062.69 3090.55 4900.83
3062.65 3092.34 4901.55
3062.61 3094.14 4902.24
3062.57 3095.95 4902.93
3062.53 3097.76 4903.62
3062.49 3099.57 4904.31
3063.12 3105.8 4893.31
3063.08 3107.6 4894
3063.04 3109.4 4894.67
3063 3111.21 4895.35
3062.97 3113.02 4896.02
3062.93 3114.83 4896.69
3062.89 3116.65 4897.36
3062.85 3118.47 4898.02
3062.81 3120.3 4898.67
3062.78 3122.12 4899.34
3062.74 3123.95 4900
3062.7 3125.78 4900.66
3062.66 3127.62 4901.31
3062.62 3129.45 4901.97
3062.59 3131.29 4902.62
3062.55 3133.13 4903.27
3062.51 3134.97 4903.93
3062.47 3136.82 4904.58
3063.11 3142.78 4893.44
3063.08 3144.61 4894.07
3063.04 3146.45 4894.7
3063.01 3148.3 4895.34
3062.97 3150.15 4895.94
3062.93 3152 4896.57
3062.9 3153.85 4897.17
3062.86 3155.71 4897.79
3062.83 3157.56 4898.42
3062.79 3159.42 4899.04
3062.76 3161.28 4899.65
3062.72 3163.14 4900.3
3062.68 3165 4900.91
3062.65 3166.87 4901.54
3062.61 3168.74 4902.15
3062.58 3170.61 4902.76
3062.54 3172.49 4903.36
3062.51 3174.37 4903.97
3062.47 3176.25 4904.57
3063.12 3181.91 4893.27
3063.09 3183.78 4893.86
3063.06 3185.65 4894.45
3063.02 3187.53 4895.04
3062.99 3189.41 4895.62
3062.96 3191.29 4896.2
3062.92 3193.17 4896.77
3062.89 3195.05 4897.37
3062.86 3196.94 4897.95
3062.82 3198.83 4898.52
3062.79 3200.73 4899.09
3062.76 3202.62 4899.66
3062.72 3204.52 4900.22
3062.69 3206.42 4900.79
3062.66 3208.33 4901.35
3062.63 3210.23 4901.9
3062.6 3212.14 4902.46
3062.56 3214.05 4903.01
3062.53 3215.97 4903.56
3062.5 3217.88 4904.11
3062.47 3219.79 4904.69
3063.13 3225.12 4893.22
3063.1 3227.02 4893.76
3063.07 3228.93 4894.29
3063.03 3230.84 4894.82
3063 3232.75 4895.38
3062.97 3234.66 4895.91
3062.94 3236.58 4896.43
3062.91 3238.5 4896.95
3062.88 3240.42 4897.47
3062.85 3242.35 4897.98
3062.82 3244.27 4898.5
3062.79 3246.2 4899.01
3062.77 3248.14 4899.51
3062.74 3250.07 4900.04
3062.71 3252 4900.54
3062.68 3253.94 4901.05
3062.65 3255.88 4901.54
3062.62 3257.82 4902.04
3062.59 3259.77 4902.54
3062.56 3261.72 4903
3062.54 3263.67 4903.49
3062.51 3265.63 4903.98
3062.48 3267.58 4904.46
3063.15 3272.52 4892.82
3063.12 3274.46 4893.3
3063.09 3276.4 4893.78
3063.07 3278.34 4894.26
3063.04 3280.29 4894.72
3063.01 3282.24 4895.19
3062.99 3284.19 4895.65
3062.96 3286.14 4896.1
3062.94 3288.09 4896.56
3062.91 3290.06 4896.99
3062.88 3292.01 4897.46
3062.86 3293.97 4897.91
3062.83 3295.94 4898.35
3062.81 3297.9 4898.8
3062.78 3299.87 4899.23
3062.76 3301.84 4899.67
3062.73 3303.81 4900.13
3062.71 3305.78 4900.55
3062.68 3307.76 4900.98
3062.66 3309.74 4901.41
3062.63 3311.71 4901.83
3062.61 3313.7 4902.25
3062.58 3315.68 4902.67
3062.56 3317.66 4903.09
3062.54 3319.65 4903.5
3062.51 3321.64 4903.91
3062.49 3323.63 4904.31
3062.47 3325.63 4904.71
3063.15 3330.07 4892.88
3063.12 3332.05 4893.28
3063.1 3334.03 4893.68
3063.08 3336.01 4894.07
3063.06 3337.99 4894.46
3063.03 3339.98 4894.84
3063.01 3341.96 4895.22
3062.99 3343.95 4895.6
3062.97 3345.94 4895.99
3062.95 3347.93 4896.35
3062.93 3349.93 4896.72
3062.9 3351.92 4897.08
3062.88 3353.92 4897.45
3062.86 3355.92 4897.81
3062.84 3357.92 4898.16
3062.82 3359.92 4898.52
3062.8 3361.93 4898.87
3062.78 3363.93 4899.22
3062.76 3365.94 4899.56
3062.74 3367.95 4899.9
3062.72 3369.96 4900.24
3062.7 3371.97 4900.57
3062.69 3373.99 4900.89
3062.67 3376 4901.23
3062.65 3378.02 4901.56
3062.63 3380.04 4901.88
3062.61 3382.06 4902.2
3062.59 3384.08 4902.52
3062.57 3386.1 4902.83
3062.56 3388.13 4903.14
3062.54 3390.15 4903.45
3062.52 3392.18 4903.75
3062.5 3394.21 4904.06
3062.49 3396.24 4904.36
3062.47 3398.27 4904.65
3062.45 3400.3 4904.94
3063.15 3404.09 4892.87
3063.13 3406.11 4893.15
3063.11 3408.13 4893.43
3063.1 3410.15 4893.71
3063.08 3412.17 4893.99
3063.07 3414.19 4894.26
3063.05 3416.21 4894.53
3074.99 3445.4 4686.86
3074.98 3447.09 4687.08
3074.97 3448.79 4687.3
3074.96 3450.48 4687.51
3074.94 3452.18 4687.72
3074.93 3453.88 4687.93
3074.92 3455.58 4688.14
3074.91 3457.27 4688.36
3074.9 3458.97 4688.58
3074.88 3460.67 4688.78
3074.87 3462.38 4688.97
3074.86 3464.08 4689.16
3074.85 3465.78 4689.35
3074.84 3467.49 4689.54
3074.83 3469.2 4689.73
3074.82 3470.9 4689.91
3074.81 3472.61 4690.11
3074.8 3474.32 4690.28
3074.79 3476.03 4690.46
3074.78 3477.74 4690.63
3074.77 3479.45 4690.8
3074.76 3481.16 4690.96
3074.75 3482.87 4691.13
3074.74 3484.59 4691.29
3074.73 3486.3 4691.46
3074.72 3488.02 4691.62
3074.71 3489.73 4691.78
3074.7 3491.45 4691.93
3074.69 3493.17 4692.07
3074.69 3494.88 4692.22
3074.68 3496.6 4692.36
3074.67 3498.32 4692.5
3074.66 3500.04 4692.64
3074.65 3501.76 4692.79
3074.65 3503.48 4692.92
3074.64 3505.2 4693.05
3074.63 3506.93 4693.18
3074.62 3508.65 4693.3
3074.62 3510.37 4693.42
3074.61 3512.1 4693.54
3074.6 3513.82 4693.65
3074.6 3515.55 4693.77
3074.59 3517.27 4693.88
3074.58 3519 4693.99
3074.58 3520.73 4694.09
3074.57 3522.46 4694.19
3074.57 3524.18 4694.29
3074.56 3525.91 4694.39
3074.56 3527.64 4694.48
3074.55 3529.37 4694.61
3074.54 3531.1 4694.69
3074.54 3532.83 4694.78
3074.53 3534.56 4694.86
3074.53 3536.29 4694.94
3074.53 3538.02 4695.01
3074.52 3539.76 4695.08
3074.52 3541.49 4695.15
3074.51 3543.22 4695.23
3074.51 3544.95 4695.29
3074.51 3546.69 4695.35
3074.5 3548.42 4695.41
3074.5 3550.15 4695.47
3074.5 3551.89 4695.52
3074.49 3553.62 4695.57
3074.49 3555.36 4695.62
3074.49 3557.09 4695.66
3074.49 3558.83 4695.71
3074.48 3560.56 4695.74
3074.48 3562.3 4695.78
3074.48 3564.03 4695.81
3074.48 3565.77 4695.85
3074.48 3567.5 4695.87
3074.47 3569.24 4695.9
3074.47 3570.98 4695.95
3074.47 3572.71 4695.97
3074.47 3574.45 4695.98
3074.47 3576.19 4696
3074.47 3577.92 4696.01
3074.47 3579.66 4696.02
3074.47 3581.4 4696.02
3074.47 3583.13 4696.03
3074.47 3584.87 4696.03
3074.47 3586.6 4696.03
3074.47 3588.34 4696.02
3074.47 3590.08 4696.01
3074.47 3591.81 4696
3074.47 3593.55 4695.99
3074.47 3595.29 4695.97
3074.47 3597.02 4695.95
3074.47 3598.76 4695.94
3074.47 3600.5 4695.92
3074.47 3602.23 4695.89
3074.48 3603.97 4695.86
3074.48 3605.7 4695.82
3074.48 3607.44 4695.79
3074.48 3609.17 4695.75
3074.49 3610.91 4695.71
3074.49 3612.64 4695.67
3074.49 3614.38 4695.62
3074.49 3616.11 4695.57
3074.5 3617.85 4695.52
3074.5 3619.58 4695.46
3074.5 3621.32 4695.41
3074.51 3623.05 4695.34
3074.51 3624.78 4695.28
3074.51 3626.51 4695.23
3074.52 3628.25 4695.16
3074.52 3629.98 4695.08
3074.53 3631.71 4695.01
3074.53 3633.44 4694.93
3074.53 3635.17 4694.85
3074.54 3636.9 4694.76
3074.54 3638.63 4694.68
3074.55 3640.36 4694.57
3074.56 3642.09 4694.48
3074.56 3643.82 4694.39
3074.57 3645.55 4694.29
3074.57 3647.28 4694.19
3074.58 3649 4694.09
3074.58 3650.73 4693.98
3074.59 3652.46 4693.87
3074.6 3654.18 4693.77
3074.6 3655.91 4693.65
3074.61 3657.63 4693.54
3074.62 3659.36 4693.42
3074.62 3661.08 4693.29
3074.63 3662.8 4693.17
3074.64 3664.53 4693.04
3074.65 3666.25 4692.91
3074.65 3667.97 4692.77
3074.66 3669.69 4692.63
3074.67 3671.41 4692.49
3074.68 3673.13 4692.34
3074.69 3674.85 4692.2
3074.7 3676.56 4692.05
3074.7 3678.28 4691.9
3074.71 3680 4691.75
3074.72 3681.71 4691.61
3074.73 3683.43 4691.44
3074.74 3685.14 4691.28
3074.75 3686.85 4691.11
3074.76 3688.57 4690.95
3074.77 3690.28 4690.78
3074.78 3691.99 4690.61
3074.79 3693.7 4690.43
3074.8 3695.41 4690.25
3074.81 3697.12 4690.11
3074.82 3698.83 4689.93
3074.83 3700.53 4689.75
3074.84 3702.24 4689.56
3074.85 3703.94 4689.37
3074.86 3705.65 4689.18
3074.87 3707.35 4688.98
3074.88 3709.05 4688.78
3074.9 3710.75 4688.57
3074.91 3712.45 4688.37
3074.92 3714.15 4688.16
3074.93 3715.85 4687.95
3074.94 3717.54 4687.74
3074.96 3719.24 4687.53
3074.97 3720.94 4687.31
3074.98 3722.63 4687.09
3074.99 3724.32 4686.87
3075.01 3726.02 4686.66
3075.02 3727.71 4686.43
3075.03 3729.4 4686.2
3075.05 3731.08 4685.97
3075.06 3732.77 4685.73
3075.07 3734.46 4685.5
3074.38 3737.92 4697.6
3074.39 3739.62 4697.38
3074.4 3741.33 4697.14
3074.42 3743.03 4696.89
3074.43 3744.73 4696.63
3074.45 3746.43 4696.38
3074.46 3748.12 4696.12
3074.48 3749.82 4695.86
3074.49 3751.51 4695.6
3074.51 3753.21 4695.33
3074.52 3754.9 4695.06
3074.54 3756.59 4694.79
3074.55 3758.28 4694.52
3074.57 3759.97 4694.24
3074.59 3761.66 4693.96
3074.6 3763.34 4693.68
3074.62 3765.03 4693.4
3074.63 3766.72 4693.14
3074.65 3768.4 4692.85
3074.67 3770.08 4692.56
3074.68 3771.76 4692.26
3074.7 3773.44 4691.97
3074.72 3775.11 4691.67
3074.73 3776.79 4691.37
3074.75 3778.46 4691.07
3074.77 3780.14 4690.77
3074.79 3781.81 4690.47
3074.8 3783.48 4690.16
3074.82 3785.15 4689.85
3074.84 3786.81 4689.53
3074.86 3788.48 4689.22
3074.88 3790.14 4688.9
3074.9 3791.8 4688.57
3074.91 3793.46 4688.25
3074.93 3795.12 4687.93
3074.95 3796.78 4687.6
3074.97 3798.44 4687.27
3074.99 3800.09 4686.93
3075.01 3801.74 4686.59
3075.03 3803.39 4686.26
3075.05 3805.04 4685.91
3075.07 3806.69 4685.57
3074.39 3810.93 4697.45
3074.41 3812.59 4697.1
3074.43 3814.25 4696.74
3074.45 3815.91 4696.39
3074.47 3817.57 4696.03
3074.49 3819.23 4695.66
3074.51 3820.89 4695.3
3074.53 3822.54 4694.94
3074.55 3824.2 4694.59
3074.57 3825.85 4694.22
3074.59 3827.5 4693.85
3074.61 3829.14 4693.47
3074.64 3830.79 4693.09
3074.66 3832.43 4692.71
3074.68 3834.07 4692.33
3074.7 3835.72 4691.99
3074.72 3837.36 4691.6
3074.74 3838.99 4691.2
3074.77 3840.63 4690.81
3074.79 3842.26 4690.42
3074.81 3843.89 4690.02
3074.84 3845.52 4689.62
3074.86 3847.15 4689.22
3074.88 3848.77 4688.82
3074.9 3850.4 4688.43
3074.93 3852.03 4688.04
3074.95 3853.65 4687.64
3074.97 3855.26 4687.22
3075 3856.88 4686.81
3075.02 3858.49 4686.4
3075.04 3860.11 4685.98
3064.61 3087.26 4899.66
3064.58 3089.06 4900.36
3064.54 3090.85 4901.05
3064.5 3092.64 4901.77
3064.46 3094.45 4902.46
3064.42 3096.26 4903.15
3064.38 3098.06 4903.84
3064.34 3099.88 4904.53
3064.96 3106.1 4893.53
3064.92 3107.89 4894.22
3064.88 3109.7 4894.89
3064.84 3111.51 4895.56
3064.81 3113.32 4896.23
3064.77 3115.13 4896.9
3064.73 3116.95 4897.57
3064.69 3118.76 4898.23
3064.66 3120.59 4898.89
3064.62 3122.41 4899.55
3064.58 3124.24 4900.2
3064.55 3126.07 4900.87
3064.51 3127.9 4901.52
3064.47 3129.74 4902.17
3064.44 3131.58 4902.83
3064.4 3133.42 4903.47
3064.36 3135.26 4904.14
3064.99 3141.22 4893
3064.95 3143.06 4893.64
3064.92 3144.89 4894.27
3064.88 3146.73 4894.91
3064.85 3148.58 4895.51
3064.81 3150.43 4896.14
3064.78 3152.27 4896.76
3064.74 3154.13 4897.37
3064.71 3155.98 4897.99
3064.67 3157.84 4898.61
3064.64 3159.69 4899.23
3064.6 3161.55 4899.85
3064.57 3163.41 4900.49
3064.53 3165.27 4901.11
3064.5 3167.13 4901.74
3064.46 3169.01 4902.35
3064.43 3170.88 4902.95
3064.4 3172.76 4903.56
3064.36 3174.64 4904.16
3064.33 3176.52 4904.76
3064.96 3182.17 4893.46
3064.93 3184.04 4894.05
3064.9 3185.91 4894.64
3064.86 3187.79 4895.22
3064.83 3189.67 4895.8
3064.8 3191.55 4896.38
3064.77 3193.43 4896.96
3064.73 3195.31 4897.56
3064.7 3197.19 4898.13
3064.67 3199.08 4898.7
3064.64 3200.98 4899.27
3064.6 3202.87 4899.84
3064.57 3204.77 4900.4
3064.54 3206.67 4900.97
3064.51 3208.57 4901.52
3064.48 3210.48 4902.08
3064.45 3212.39 4902.64
3064.42 3214.3 4903.19
3064.39 3216.21 4903.74
3064.36 3218.12 4904.29
3064.32 3220.03 4904.87
3064.97 3225.35 4893.39
3064.94 3227.26 4893.93
3064.91 3229.16 4894.46
3064.88 3231.07 4894.99
3064.85 3232.98 4895.55
3064.82 3234.89 4896.08
3064.79 3236.81 4896.59
3064.76 3238.73 4897.11
3064.73 3240.65 4897.63
3064.7 3242.57 4898.15
3064.67 3244.5 4898.66
3064.64 3246.43 4899.17
3064.61 3248.36 4899.68
3064.58 3250.29 4900.2
3064.56 3252.22 4900.71
3064.53 3254.16 4901.21
3064.5 3256.1 4901.71
3064.47 3258.04 4902.2
3064.44 3259.99 4902.7
3064.42 3261.94 4903.16
3064.39 3263.89 4903.65
3064.36 3265.84 4904.14
3064.34 3267.79 4904.62
3064.99 3272.73 4892.98
3064.96 3274.67 4893.45
3064.94 3276.6 4893.94
3064.91 3278.55 4894.41
3064.88 3280.49 4894.88
3064.86 3282.44 4895.34
3064.83 3284.39 4895.8
3064.81 3286.34 4896.26
3064.78 3288.3 4896.71
3064.76 3290.26 4897.15
3064.73 3292.21 4897.61
3064.7 3294.17 4898.06
3064.68 3296.13 4898.5
3064.65 3298.1 4898.94
3064.63 3300.06 4899.38
3064.61 3302.03 4899.82
3064.58 3304 4900.28
3064.56 3305.97 4900.7
3064.53 3307.95 4901.13
3064.51 3309.92 4901.55
3064.48 3311.9 4901.98
3064.46 3313.88 4902.39
3064.44 3315.86 4902.81
3064.41 3317.85 4903.23
3064.39 3319.83 4903.64
3064.37 3321.82 4904.05
3064.35 3323.81 4904.45
3064.32 3325.8 4904.86
3064.99 3330.25 4893.02
3064.96 3332.22 4893.42
3064.94 3334.2 4893.82
3064.92 3336.18 4894.21
3064.9 3338.16 4894.59
3064.88 3340.15 4894.98
3064.86 3342.13 4895.35
3064.83 3344.12 4895.73
3064.81 3346.1 4896.13
3064.79 3348.1 4896.49
3064.77 3350.09 4896.85
3064.75 3352.08 4897.22
3064.73 3354.08 4897.58
3064.71 3356.08 4897.94
3064.69 3358.08 4898.29
3064.67 3360.08 4898.65
3064.65 3362.08 4899
3064.63 3364.08 4899.35
3064.61 3366.09 4899.69
3064.59 3368.1 4900.03
3064.57 3370.11 4900.37
3064.56 3372.12 4900.7
3064.54 3374.13 4901.02
3064.52 3376.15 4901.36
3064.5 3378.16 4901.69
3064.48 3380.18 4902.01
3064.47 3382.2 4902.33
3064.45 3384.22 4902.65
3064.43 3386.24 4902.96
